# .PCD v0.7 - Point Cloud Data file format
VERSION 0.7
FIELDS x y z intensity
SIZE 4 4 4 4
TYPE F F F F
COUNT 1 1 1 1
WIDTH 1447
HEIGHT 1
VIEWPOINT 0 0 0 1 0 0 0
POINTS 1447
DATA ascii
101.18763 19.658859 2.9188941 6
69.631317 13.156492 0.87534314 3
68.875938 12.995245 0.55758512 3
65.851471 12.383329 0.26194745 83
69.671471 13.168867 -0.058198512 3
65.971466 12.418749 -0.33610317 5
62.336281 11.681271 -0.58203435 2
59.231792 11.040535 -0.79512894 4
56.766167 10.510012 -1.007076 2
54.607975 10.0747 -1.2052034 2
52.271393 9.6024761 -1.3688825 2
49.746052 9.0822887 -1.5149465 2
48.018597 8.734127 -1.6711659 2
46.044182 8.3352976 -1.8008351 3
43.671398 7.8548379 -1.8930871 12
38.996277 6.904006 -1.8462169 1
33.715477 5.8283119 -1.7014488 2
30.41342 5.1623225 -1.6601218 2
22.548042 3.548527 -1.5938476 6
13.488854 1.7111287 -1.3090007 16
9.33356 0.87207258 -1.2855257 10
6.9343853 0.39388028 -1.3032491 7
15.971368 2.2485161 3.8939986 3
86.668411 16.61021 9.3413963 10
86.719841 16.574591 6.6167469 8
86.770645 16.567312 5.8332691 13
109.02093 21.076389 6.7292781 24
109.05034 21.011221 6.2367311 30
108.95134 20.980148 5.7396102 28
109.06483 20.991701 5.2727199 28
107.90815 20.76635 4.7542124 50
101.45615 19.450962 4.0355873 12
101.42476 19.452635 3.5956769 10
101.52745 19.462774 3.1593833 14
101.50064 19.465706 2.701457 18
94.844704 18.110023 2.1208327 3
72.275124 13.506558 1.0484864 2
69.019859 12.855875 0.71743906 3
68.794762 12.80324 0.41712135 52
71.192993 13.292477 0.097574443 5
67.589722 12.571561 -0.19610944 2
64.136635 11.880149 -0.44797054 2
60.540291 11.159683 -0.68998134 2
58.100361 10.661006 -0.90252399 3
55.793926 10.200098 -1.0974787 2
53.53278 9.7481518 -1.2838559 3
51.100399 9.2327824 -1.4446058 2
48.785889 8.7616615 -1.5969614 3
47.095039 8.4249592 -1.7377644 5
45.098061 8.0264502 -1.8579041 3
41.614952 7.3280063 -1.8829225 2
35.820255 6.1626534 -1.7396353 3
31.904022 5.3815088 -1.6665546 2
24.907207 3.9730306 -1.4880247 7
15.861386 2.1557457 -1.2885618 23
11.380618 1.2575562 -1.3021661 17
7.9605021 0.58247697 -1.2909691 8
105.62595 20.299154 13.471166 14
76.428314 14.350716 6.8788128 17
86.511826 16.303896 6.0145679 13
109.00418 20.807735 6.9961829 48
109.36954 20.870344 6.5046129 41
109.41267 20.867928 6.0131865 46
109.37646 20.849251 5.5376105 26
109.29131 20.840828 5.0609751 18
101.52291 19.273613 4.2712774 8
101.35986 19.230352 3.8261836 18
101.43444 19.253304 3.3901098 19
102.05035 19.366331 2.9484463 15
98.002731 18.492418 2.3857374 5
71.290428 13.16758 1.5265054 2
69.120522 12.73857 0.56527698 16
68.826561 12.685335 0.26543573 3
69.208855 12.767428 -0.04808712 4
65.651291 12.049765 -0.32569161 2
62.259064 11.377332 -0.57385719 2
59.230125 10.776778 -0.78800309 4
56.910408 10.275631 -1.0035433 3
54.426842 9.7852688 -1.1933448 2
52.300972 9.3656673 -1.3630648 19
49.828476 8.8767462 -1.5112048 6
47.916336 8.4992638 -1.660288 4
46.128418 8.1462746 -1.7980399 4
43.781059 7.6812472 -1.8920938 8
38.765125 6.6827025 -1.8277 7
33.571938 5.647532 -1.6877673 3
30.427425 5.0218039 -1.66177 2
22.554476 3.4421363 -1.5903195 5
13.583851 1.6636492 -1.3167821 14
9.3291368 0.82539803 -1.2823546 8
6.9831514 0.36703363 -1.3108481 8
86.983055 16.273573 9.374423 5
86.853073 16.217644 6.6299281 5
109.82957 20.767487 7.2779083 10
110.5693 20.903374 6.8249068 100
110.58328 20.813892 6.3244581 68
110.56205 20.798164 5.8446488 80
110.54556 20.804007 5.3460717 58
109.99389 20.683401 4.8455319 15
102.16047 19.142868 4.0682878 16
102.50834 19.200981 3.6373293 8
102.41645 19.190908 3.1918731 14
102.5022 19.197506 2.7325494 5
94.986221 17.702042 2.1313388 5
69.225159 12.577751 0.72511017 4
68.956245 12.530221 0.4243314 28
71.039642 12.946916 0.10562018 2
67.404976 12.235491 -0.18725681 2
63.689339 11.495527 -0.43548924 1
60.536297 10.878822 -0.68295681 3
58.017651 10.386442 -0.89374298 3
55.73386 9.9400473 -1.0889839 2
53.362022 9.4760818 -1.2718829 3
50.892048 8.9545956 -1.4308102 4
48.691505 8.5254803 -1.5866172 5
47.084572 8.212676 -1.7306788 8
45.09087 7.8235121 -1.851027 3
41.505913 7.1201501 -1.8710541 2
35.969913 6.0310798 -1.7425482 1
31.938911 5.2383485 -1.6636629 3
24.870512 3.8521986 -1.4812617 6
15.924686 2.0941324 -1.2915105 22
11.325903 1.1920415 -1.2945721 20
8.0054359 0.54510927 -1.2965541 6
107.86594 20.17713 13.762055 6
85.424438 15.724161 7.6524673 5
89.139458 16.421114 6.2044363 16
103.15195 19.069815 4.3389492 15
103.17831 19.064215 3.8937447 11
103.77516 19.188885 3.4658623 10
104.40275 19.300863 3.0145531 12
71.248749 12.830771 1.5319076 2
72.426689 13.066328 1.2371476 5
69.79155 12.557799 0.88978374 4
69.188972 12.433124 0.57219726 4
69.00898 12.365119 0.28398585 2
68.996078 12.368546 -0.040316552 4
65.453873 11.671772 -0.3053298 4
61.889481 10.983239 -0.56204569 2
59.153091 10.455036 -0.78013086 3
56.837833 10.008676 -0.99487388 3
54.351273 9.5285406 -1.1843631 2
52.20702 9.1146002 -1.3532486 3
49.704086 8.630496 -1.4999923 2
47.936256 8.280611 -1.6545548 3
46.060429 7.8929238 -1.7887149 4
43.662823 7.4300284 -1.8800864 3
38.88126 6.5025887 -1.8283681 10
33.700684 5.4962516 -1.6902409 2
30.309193 4.8383579 -1.6495374 2
22.596806 3.3471851 -1.5897489 5
13.573551 1.597484 -1.3153852 25
9.3646307 0.78483003 -1.2853788 11
7.0690575 0.3472521 -1.3275176 4
110.55241 20.495329 16.7528 15
86.001587 15.634907 9.2730751 9
87.077148 15.813619 6.6634727 8
89.654472 16.295301 6.0365396 13
84.99765 15.365695 3.8393536 201
84.992805 15.356175 3.4554458 5
104.39922 19.038925 3.703512 10
104.8778 19.13941 3.2661133 14
85.005493 15.292533 1.9519932 3
69.603127 12.337093 0.4319222 6
69.688171 12.359243 0.11723542 4
67.340706 11.912377 -0.1795989 3
63.364277 11.10399 -0.42514116 1
60.360493 10.531955 -0.67361903 3
57.94849 10.072853 -0.88589567 3
55.638027 9.6329117 -1.0801866 4
53.28754 9.1850834 -1.2633235 3
50.943546 8.7381229 -1.4258448 5
48.574425 8.2861042 -1.5754745 2
47.070873 7.9914784 -1.7235963 11
45.099045 7.6155615 -1.8450097 2
41.705235 6.9652781 -1.8753051 1
31.924547 5.0676732 -1.6579489 2
24.901394 3.7260823 -1.4793713 6
16.034052 2.0285859 -1.2988751 26
11.124821 1.089632 -1.2655241 22
7.9668555 0.49601319 -1.2889851 13
82.969032 15.386001 -18.775942 8
84.487846 15.199812 10.885363 17
90.874275 16.294378 6.3195004 31
89.72908 16.066179 5.8557296 29
91.754959 16.44455 5.530993 7
91.276932 16.343796 5.1086822 15
85.053505 15.15437 4.0355396 201
84.884125 15.128779 3.6608677 201
105.49388 19.052275 3.9803476 8
105.99792 19.13743 3.5397699 8
90.555847 16.141476 2.2628164 6
85.050339 15.091363 0.63076735 3
68.744789 12.002879 -0.019361049 3
65.237564 11.341073 -0.29599136 2
62.034771 10.736864 -0.55702055 2
59.019234 10.167396 -0.77065015 3
56.746353 9.7391634 -0.9858309 2
54.477684 9.3013067 -1.1811123 4
52.215786 8.8746681 -1.3468745 3
49.675438 8.3947649 -1.4924245 3
47.843643 8.0495729 -1.6442149 2
45.966457 7.695425 -1.7777447 4
43.624153 7.2198105 -1.8719127 2
38.610027 6.2697654 -1.8079365 24
33.434814 5.294127 -1.6695868 2
30.327948 4.7051892 -1.645923 2
22.540648 3.2289279 -1.5812174 7
13.404627 1.4983705 -1.2935226 13
9.3857441 0.74318689 -1.2881395 6
7.0481124 0.30736449 -1.3210208 2
108.01585 19.584681 16.38121 14
87.363144 15.468173 6.6873393 5
91.020538 16.142508 6.1263604 15
89.878746 15.917484 5.648705 23
92.201141 16.347633 5.3511901 9
84.997177 14.992975 4.5967951 100
84.869949 14.951562 3.8396809 201
106.43309 19.032326 4.2563782 7
84.950592 14.909451 2.7236211 24
84.964584 14.919098 2.3414545 61
84.959145 14.909526 1.9585356 94
72.35125 12.529759 1.3956294 3
70.476921 12.200109 0.12210941 3
66.720406 11.497937 -0.16758713 3
63.52438 10.888932 -0.41936845 3
60.278927 10.249486 -0.66526175 4
57.907299 9.8084412 -0.87809956 3
55.586197 9.3765297 -1.0720258 7
53.371235 8.9545527 -1.2591294 4
50.943798 8.5025091 -1.4192895 2
48.65229 8.0758085 -1.5720121 4
47.08403 7.7845368 -1.7176368 8
45.091034 7.4131966 -1.8382092 2
41.405014 6.7226009 -1.8536922 5
35.307487 5.5768108 -1.6946626 2
31.936035 4.9263129 -1.6595982 3
24.908199 3.6095922 -1.4804267 5
16.141493 1.9711068 -1.3060607 28
11.100181 1.0293889 -1.2597324 25
8.0015211 0.4630101 -1.2929013 8
6.2155848 0.13338086 -1.3314821 1
105.20681 18.70821 13.453855 12
85.94857 15.053753 7.7020359 5
93.497719 16.435987 6.4960232 12
91.141953 15.935217 5.9462943 19
90.150703 15.741425 5.4629092 22
91.872696 16.044292 4.7307577 8
107.38216 18.93244 4.5349951 14
107.49774 18.942856 4.0755196 18
107.67817 18.985331 3.5982745 15
90.400795 15.764211 2.2683597 9
90.404976 15.70631 1.8606033 15
72.249802 12.345136 0.29583836 3
68.509911 11.655866 -0.010832876 4
65.091423 11.025762 -0.28740221 2
61.680965 10.385251 -0.53394711 3
58.990166 9.8899784 -0.76332664 4
56.746925 9.4775333 -0.97909909 3
54.376083 9.0107212 -1.1620462 3
52.150341 8.5922136 -1.3290838 2
49.743973 8.150197 -1.4887289 3
47.703232 7.7754917 -1.6323884 3
46.046368 7.4717546 -1.7752283 2
43.574791 7.0165119 -1.8711705 2
39.137383 6.1952739 -1.8306919 6
33.424175 5.1358194 -1.6639295 3
30.314775 4.5604477 -1.6403736 2
22.517445 3.121774 -1.57541 6
13.389912 1.4219031 -1.2890587 20
9.398632 0.69221801 -1.28766 5
7.084599 0.27275473 -1.3276166 2
108.78892 19.174803 16.509638 6
87.328079 15.077436 6.6888056 11
91.961861 15.916434 6.1902294 26
90.536827 15.634903 5.2836728 26
90.973373 15.6565 4.8956704 55
91.148239 15.679246 4.5099797 34
91.279289 15.693899 4.1211667 19
91.238228 15.693883 3.7090764 18
91.18264 15.674525 3.2966125 24
91.214325 15.687575 2.9039502 24
91.104149 15.658184 2.4910278 16
90.693207 15.573583 2.0735211 10
88.73745 15.221719 1.6378629 14
84.090973 14.374928 1.1928359 5
73.113487 12.309274 0.7663486 2
74.579163 12.583424 0.46559778 3
70.373947 11.818641 0.14160535 3
66.548233 11.12278 -0.14786232 2
63.349064 10.541265 -0.41075668 3
60.188206 9.9664621 -0.65681136 3
57.917953 9.5436573 -0.87157166 3
55.625496 9.1274843 -1.0663223 4
53.2369 8.6934786 -1.2484548 4
50.901012 8.2687693 -1.411224 2
48.718315 7.8360181 -1.568426 1
47.100502 7.5436068 -1.7122239 9
45.161728 7.1922808 -1.8354853 2
41.28376 6.4851408 -1.8417025 5
35.430195 5.4149132 -1.6964426 2
31.941465 4.7778878 -1.6550667 2
24.910053 3.4969394 -1.4764992 5
16.142162 1.8962845 -1.3061764 22
11.142152 0.9840107 -1.2627006 15
8.0663776 0.43376938 -1.3021982 11
91.827599 15.660011 5.9929194 36
90.414352 15.393576 5.482954 17
90.748619 15.445417 5.092598 26
91.167755 15.512647 4.7034688 48
91.177109 15.504622 4.3260813 39
91.074936 15.42703 3.9104176 24
91.077721 15.434753 3.5174427 24
91.061584 15.422715 3.1072221 18
91.03054 15.407681 2.7132432 24
90.852867 15.383284 2.2841921 20
82.62117 13.882855 1.7388105 15
82.377098 13.845168 1.3791146 3
82.909874 13.948582 1.0129218 3
76.649956 12.819808 0.61817008 2
72.200081 12.018046 0.3032828 5
68.177849 11.243721 -0.0027402043 3
64.869507 10.6508 -0.27892911 3
61.731293 10.088335 -0.53933007 1
58.943943 9.5884905 -0.75605261 3
56.683907 9.1735067 -0.97139776 5
54.394817 8.7637281 -1.165801 2
52.063297 8.3457155 -1.3291632 3
49.723301 7.925971 -1.4814565 2
47.697742 7.5628557 -1.6257293 4
46.046524 7.2673192 -1.7688519 2
43.395893 6.7581725 -1.8564165 2
33.387581 4.9544773 -1.6569666 3
30.254795 4.3962364 -1.6320101 3
22.493799 2.9978492 -1.5696797 6
13.428704 1.3659567 -1.2906626 14
9.4355574 0.65134978 -1.2909822 6
7.143589 0.24648388 -1.3373554 1
72.527924 12.030896 7.9099207 1
95.692139 16.187855 7.2923317 10
94.143456 15.906691 6.3321905 17
90.153473 15.177489 5.6748924 19
91.831848 15.471411 5.3424206 25
91.491447 15.333803 4.9266548 19
91.134613 15.276985 4.5154786 22
91.090675 15.259698 4.1198711 26
91.066338 15.262852 3.7095344 26
91.063812 15.253296 3.2998393 35
91.030571 15.237937 2.9058032 39
82.309181 13.67918 1.5528855 5
83.2966 13.863214 1.1927774 2
74.117882 12.173268 0.45898283 4
69.906517 11.42554 0.13762189 2
66.239357 10.774585 -0.15042549 6
63.056637 10.209621 -0.40031222 3
60.097115 9.6735353 -0.64857757 3
57.925579 9.2893 -0.86487037 3
55.525146 8.8636999 -1.0570636 2
53.289261 8.4674082 -1.2433051 1
50.954578 8.05303 -1.4064556 4
48.609753 7.6007667 -1.5578128 4
47.086174 7.3321986 -1.7052029 5
44.951271 6.954174 -1.8192948 2
41.283756 6.3014674 -1.8357722 13
35.324146 5.2376986 -1.6917976 2
31.959938 4.6379499 -1.6513259 3
24.751366 3.3556244 -1.461422 9
16.144766 1.821862 -1.3034103 27
11.142682 0.93089145 -1.2625 16
8.0821314 0.39672348 -1.3044631 6
103.76292 17.431997 13.273662 8
86.232491 14.286336 7.730299 5
89.403397 14.818778 6.237319 22
90.005409 14.916628 5.8867798 17
92.514816 15.354284 5.5891438 16
92.079056 15.267349 5.166615 18
91.356003 15.146458 4.7183633 14
91.320747 15.130784 4.3221455 28
113.16051 18.936621 4.772284 9
82.390518 13.47961 1.7423112 4
82.334366 13.47621 1.3861842 25
82.370361 13.489384 1.0165145 3
76.52726 12.461457 0.62532574 4
67.964821 10.906454 -0.0067321658 1
64.703262 10.336074 -0.28196135 5
61.553051 9.7848349 -0.52987385 3
59.000954 9.3386154 -0.75023627 17
56.607288 8.9098101 -0.96287423 2
54.325397 8.511198 -1.157215 3
51.984299 8.1015711 -1.3200908 4
49.692787 7.7005162 -1.473886 3
47.734619 7.3580885 -1.6208259 5
46.198868 7.0902948 -1.7777332 4
43.437332 6.5728412 -1.8523337 20
38.549171 5.7136292 -1.7879332 1
33.430992 4.8128829 -1.6606531 1
30.205807 4.2460918 -1.6243306 4
22.517311 2.899811 -1.5719777 11
13.436662 1.3043252 -1.2914571 16
9.4444637 0.60714555 -1.291948 10
7.1305447 0.20820688 -1.3340876 1
85.770538 14.00262 9.2698002 5
88.949661 14.53214 6.8114834 20
91.592392 14.950788 4.937552 17
82.672333 13.329816 1.9360777 5
82.210884 13.241113 1.557703 31
79.10585 12.712524 0.81575257 3
73.744148 11.782635 0.46583572 3
69.861702 11.110538 0.14502054 3
66.233238 10.482194 -0.14326203 3
63.184959 9.9431286 -0.40638596 2
60.018547 9.3950453 -0.64043796 6
57.711956 8.9648247 -0.85416019 5
55.538776 8.5906887 -1.0611467 3
53.412975 8.2146521 -1.2504451 2
50.860973 7.7739873 -1.3972509 2
48.588703 7.3820405 -1.5506113 4
47.077427 7.1223612 -1.7070363 4
44.886841 6.7438288 -1.8182249 3
41.557053 6.1659455 -1.851485 6
35.117298 5.0439024 -1.6751058 2
31.796886 4.4663286 -1.636714 2
24.763727 3.2411542 -1.4583602 7
16.258837 1.7671299 -1.3112755 20
11.213591 0.89024115 -1.2692897 15
8.1368027 0.36488876 -1.3136766 11
104.10435 17.037592 13.316834 8
85.852585 13.842341 7.7015381 9
91.833305 14.821769 5.1597033 23
82.796333 13.197221 2.1137295 4
82.390503 13.118684 1.749651 6
81.917168 13.050292 1.0206963 3
76.207153 12.056914 0.61775029 3
71.571228 11.262255 0.30515611 2
67.949036 10.642464 0.0011543334 3
64.638168 10.040415 -0.27430001 1
61.494572 9.5039186 -0.52214873 2
58.974758 9.0636759 -0.75375324 2
56.524551 8.6460905 -0.95427191 1
54.309998 8.2689371 -1.1501454 3
52.048 7.8830628 -1.3155375 5
49.720028 7.4857831 -1.4774534 2
47.725971 7.1456103 -1.6228113 2
45.938889 6.832408 -1.7599007 4
43.609818 6.4341187 -1.8544974 8
38.223728 5.4862785 -1.7719539 2
33.282326 4.6379294 -1.6471181 2
30.250225 4.118433 -1.6281077 5
22.432713 2.7829523 -1.5613534 5
13.461292 1.2455696 -1.291528 27
9.4463701 0.56170654 -1.2918639 8
7.1593952 0.17599225 -1.3377724 1
85.756516 13.671435 9.2722902 12
110.62727 17.83687 8.3718519 16
100.62151 16.104427 6.7475567 14
92.507996 14.716151 5.3883257 35
91.940834 14.609771 4.960793 6
82.472061 12.918864 1.9391766 3
82.281975 12.893632 1.5514294 72
73.836746 11.475109 0.47339427 2
66.180557 10.170246 -0.13599759 1
63.182281 9.6649742 -0.39937904 2
60.105293 9.1457977 -0.63499546 2
57.809509 8.7275648 -0.85982895 4
55.498734 8.329052 -1.0536146 2
53.366776 7.971333 -1.2424909 2
50.844173 7.5468464 -1.3994457 2
48.599827 7.169445 -1.5535086 3
46.989357 6.8992424 -1.6969907 4
44.879955 6.5439796 -1.8117279 4
41.441456 5.9619417 -1.8396896 4
35.128975 4.8893647 -1.6706567 2
31.790066 4.3230729 -1.6374204 2
24.835798 3.1276851 -1.4641684 5
16.206997 1.6705937 -1.3034232 18
11.211268 0.82759064 -1.268746 28
8.1818218 0.32588059 -1.3194311 3
103.6459 16.486217 13.260931 5
89.260742 14.028613 7.992744 8
92.632706 14.497643 5.6050911 17
91.917313 14.368079 5.1516376 28
82.390892 12.758348 1.7570001 6
82.359367 12.699632 1.4004862 17
81.770279 12.607679 1.0261554 3
76.037468 11.653098 0.62389737 3
67.891182 10.297463 0.0079475939 2
64.750237 9.7754908 -0.26833111 3
61.406105 9.2076311 -0.51423454 5
59.01479 8.8110867 -0.74769092 2
56.55006 8.4016304 -0.94815457 2
54.373402 8.0403996 -1.1452372 3
52.076607 7.620235 -1.3104149 3
49.805874 7.2442575 -1.4745716 2
47.692913 6.894187 -1.6155889 2
44.087112 6.2933817 -1.6714412 30
43.411102 6.183784 -1.8468568 3
37.900429 5.2622099 -1.7491716 3
33.236191 4.4816923 -1.6395869 3
30.173412 3.970108 -1.6187395 3
22.534311 2.698359 -1.5658115 6
13.378024 1.1658419 -1.2821766 17
9.4213438 0.50408673 -1.2856839 9
7.1827641 0.13816626 -1.3418415 1
109.25736 17.231276 16.570305 21
87.77681 13.57162 9.4800186 7
98.905052 15.399286 7.5173287 5
92.815361 14.355742 5.827549 12
91.960907 14.204341 5.3641944 28
82.492516 12.56207 1.9319894 6
82.309036 12.538482 1.5592984 2
84.738129 12.948089 1.2147189 3
78.491394 11.918467 0.81329352 4
73.341843 11.016298 0.47891414 2
69.347946 10.362018 0.15994081 3
66.255623 9.856225 -0.13007894 4
62.954124 9.3153105 -0.3903757 4
59.951504 8.8235474 -0.63706779 2
57.758396 8.4650049 -0.85205972 5
55.291149 8.0505638 -1.0418786 3
53.148884 7.7003069 -1.2296153 3
50.857281 7.324955 -1.3934644 2
48.489143 6.9366994 -1.5429944 3
44.511349 6.2479577 -1.58635 3
44.108757 6.1851583 -1.7699261 18
39.904972 5.4938054 -1.755602 9
35.13924 4.7086902 -1.6664097 2
31.778894 4.1556296 -1.63225 2
24.857231 3.0192506 -1.4617782 6
16.184767 1.592124 -1.3015018 28
11.374775 0.80164361 -1.2876339 23
8.1951971 0.2879065 -1.3213623 1
103.22418 15.889546 13.207641 6
88.57486 13.461102 7.9363837 6
99.403038 15.223969 6.8841343 34
93.099098 14.178901 6.0722218 28
91.832504 13.962197 5.5658789 37
101.04867 15.464404 5.6297102 16
101.01605 15.448756 5.1929216 22
100.9866 15.451938 4.7571859 35
100.8869 15.425635 4.3005967 35
100.86346 15.356649 3.8644464 29
82.8255 12.417958 2.1273215 3
82.566261 12.367455 1.7512764 3
82.520958 12.366614 1.3953346 5
71.421623 10.571723 0.31907207 2
67.636124 9.958601 0.0041143298 2
64.447342 9.3950644 -0.25932708 4
61.483444 8.9174004 -0.52006781 4
58.802341 8.4849739 -0.73758721 4
56.482513 8.1112738 -0.95064235 3
54.182423 7.7305064 -1.1438994 3
52.009769 7.3803124 -1.3113014 2
49.635242 6.9969897 -1.4621572 3
47.711212 6.6868625 -1.6100874 3
44.081863 6.0978799 -1.6733097 16
43.103172 5.9415536 -1.8257842 9
38.237732 5.1210074 -1.7621193 8
33.111095 4.2886996 -1.6338698 3
30.223665 3.8265793 -1.6175189 2
22.592722 2.5889983 -1.5711206 7
13.441589 1.1058826 -1.2866729 20
9.5001488 0.47158605 -1.2955805 9
7.2933249 0.12075502 -1.362092 1
87.597061 13.143516 9.4477854 14
100.78397 15.200591 7.6550069 10
93.286049 13.968911 6.2780833 9
91.843666 13.726736 5.7745991 36
100.78049 15.178615 5.8444896 11
101.0089 15.205577 5.4037008 37
100.95657 15.186846 4.9665241 40
100.90744 15.186918 4.5305462 24
100.89844 15.175522 4.0781012 30
100.84219 15.174768 3.6247928 14
83.107124 12.247716 1.5772331 13
78.080132 11.452435 0.81736982 2
69.207573 10.036248 0.15499976 3
65.926544 9.5133381 -0.13261938 3
62.969315 9.0420885 -0.39500108 2
60.000374 8.568471 -0.63109159 2
57.607101 8.1449909 -0.84294057 3
55.47953 7.8078222 -1.050362 2
53.150356 7.4377093 -1.2235628 3
50.800266 7.0547361 -1.3856676 1
48.489483 6.6875849 -1.5371927 3
44.52203 6.0532136 -1.5809282 5
44.068512 5.9841003 -1.7701051 14
39.432968 5.2412815 -1.7331858 8
35.025902 4.5344 -1.6615638 2
31.759256 4.0107713 -1.6264315 2
24.745186 2.8706775 -1.4503078 13
16.174242 1.5033803 -1.2976687 20
11.33969 0.73307806 -1.2829013 21
8.2457304 0.24923493 -1.3281524 2
50.124409 6.9958224 9.3935175 8
107.43626 16.115398 13.728495 3
95.206657 14.137219 8.484355 7
91.506332 13.511356 6.3753624 33
91.781662 13.562654 5.9976187 26
109.08487 16.239614 6.5391207 6
101.07768 14.956057 5.6359096 12
101.08045 14.964856 5.1833792 23
101.26199 14.983432 4.7563415 17
80.928902 11.760345 1.0201511 2
71.057938 10.188993 0.31340647 3
67.467369 9.6235809 0.01179263 3
64.355698 9.1338196 -0.2625578 3
61.492203 8.6494532 -0.51337612 2
58.815041 8.2293758 -0.74172366 4
56.534393 7.8716846 -0.94519466 1
54.235699 7.5010386 -1.1388168 3
52.010284 7.1518068 -1.304909 3
49.627934 6.7776132 -1.464609 3
45.917461 6.1916246 -1.5407102 7
44.075153 5.9023085 -1.6671405 9
43.205563 5.7596245 -1.8249959 11
38.048714 4.9498715 -1.7533655 6
33.083111 4.1369519 -1.6275073 2
30.307024 3.6992946 -1.6183102 3
22.551874 2.4803894 -1.5641605 5
13.454624 1.0451926 -1.2855475 13
9.5278244 0.43024865 -1.299557 8
7.3428421 0.090982735 -1.3715614 1
88.081451 12.838343 9.5002623 11
91.437698 13.339682 6.9910994 21
102.2488 14.972864 6.8470697 19
110.35456 16.23728 6.8619957 15
101.35889 14.813294 5.8635678 16
101.43684 14.833593 5.4317122 12
90.785515 13.15563 3.3086088 4
77.912521 11.085678 0.8239103 2
73.211212 10.35535 0.48014432 1
69.177406 9.7291384 0.16219351 2
66.104668 9.2529926 -0.12688699 8
63.004253 8.7719975 -0.38853663 3
59.990597 8.29319 -0.62437963 4
57.193783 7.8593826 -0.83785057 10
55.368179 7.5470719 -1.0410769 2
53.105354 7.1975188 -1.225422 3
50.839901 6.8377218 -1.3806679 2
47.396839 6.3034558 -1.4983135 2
44.561138 5.8632436 -1.5848384 5
44.070206 5.790072 -1.7642757 21
39.168144 5.0253892 -1.7142402 13
35.022591 4.3784299 -1.6564392 2
31.660091 3.8537936 -1.6159134 3
24.755552 2.7749245 -1.4471418 10
16.202692 1.4333897 -1.2975267 20
11.385465 0.68661112 -1.2864976 18
8.2367191 0.20736898 -1.3244524 1
7.2210035 0.058365043 -1.5497189 1
104.51778 15.17449 13.351207 12
90.749794 13.011922 8.1114702 27
110.85522 16.110523 7.1637135 8
101.22215 14.604351 6.0871038 40
101.30923 14.55265 5.6546006 32
86.138 12.199957 1.826654 5
86.179886 12.213276 1.457146 2
75.38018 10.500881 0.62924385 2
70.890884 9.8143768 0.31995422 2
67.374825 9.2777901 0.018624842 15
64.393318 8.8231478 -0.25658685 1
61.280441 8.3477287 -0.50371754 3
58.699406 7.9539862 -0.73297566 7
56.543354 7.6150336 -0.93897069 3
54.139843 7.2483826 -1.1297867 2
51.903137 6.9069548 -1.2952335 2
47.849495 6.2494612 -1.3956785 5
46.00502 5.969346 -1.5386939 6
44.032951 5.6692657 -1.659817 26
40.226654 5.0860214 -1.6741014 4
37.986176 4.743865 -1.7450255 4
33.049522 3.9847746 -1.620876 1
30.305813 3.5641341 -1.619392 2
22.677019 2.3979888 -1.5705911 12
13.436674 0.97969139 -1.2836118 22
9.55299 0.38639012 -1.3012292 9
87.953079 12.371379 9.4878912 7
111.11739 15.887625 8.4071321 24
101.21249 14.37021 6.7879128 22
101.15198 14.351384 6.3123789 25
101.85934 14.449593 5.8971453 16
109.79263 15.651011 5.8529191 27
109.73694 15.651577 5.3597112 17
109.64283 15.566724 4.8832812 31
109.55725 15.542974 4.3900461 28
89.958511 12.560238 2.9008965 5
89.124268 12.431999 2.0799184 5
83.553177 11.598735 1.2250494 2
72.972679 9.999835 0.48697168 2
69.226532 9.3845053 0.16827132 3
65.845055 8.8768692 -0.11893481 2
62.949955 8.4425669 -0.38183525 2
59.911644 7.9860239 -0.61696047 3
57.71875 7.6575475 -0.84235388 4
55.392025 7.3081646 -1.0351572 4
53.100555 6.9542761 -1.2190189 1
50.811127 6.6104217 -1.3826268 6
47.097485 6.0495682 -1.4809763 9
44.559319 5.666811 -1.5789734 8
44.062012 5.5624876 -1.7583983 7
38.965698 4.7928596 -1.6988922 10
35.049072 4.2013845 -1.6532634 3
31.725143 3.6995428 -1.6212986 5
24.761461 2.6508448 -1.4485134 20
16.18235 1.3558478 -1.2958926 27
11.511168 0.65215164 -1.3027616 26
8.2060661 0.16062377 -1.3186444 2
7.271359 0.028800024 -1.5589225 2
51.057049 6.6787677 9.5557346 12
104.14343 14.607155 13.324159 11
89.567574 12.373591 8.0137033 2
100.93429 14.057802 6.5639968 14
110.34151 15.471251 6.1299829 13
109.74152 15.379012 5.137373 25
109.67181 15.357808 4.6441679 21
109.59052 15.35428 4.171382 22
90.291397 12.385892 2.711385 2
86.381271 11.806448 1.4664199 3
75.049171 10.123055 0.63537967 3
70.950668 9.5143623 0.3270891 1
67.469002 8.9980202 0.02518025 3
64.272049 8.5238371 -0.24861166 1
61.41394 8.0553589 -0.49951231 2
58.745983 7.6615415 -0.7278536 7
56.550224 7.3377452 -0.93304646 2
54.176388 6.9873114 -1.1345294 2
51.878769 6.6475453 -1.2979313 3
47.752354 6.0248156 -1.3862759 7
46.201248 5.7965336 -1.5406303 4
44.071812 5.4813452 -1.6557763 15
40.019737 4.8777099 -1.6659268 3
37.40596 4.4890103 -1.7089103 1
32.965481 3.8011568 -1.6116447 2
30.277212 3.4081204 -1.6133825 3
22.655516 2.2755573 -1.5653738 12
13.406477 0.90212524 -1.2777556 23
9.6114769 0.34364796 -1.3099686 5
51.329117 6.6251945 11.193062 2
51.135265 6.522974 8.018898 9
88.609383 12.070859 9.557826 6
112.63702 15.632123 8.522397 15
100.95857 13.820513 6.7760229 37
102.09685 13.979384 6.3719692 15
91.624138 12.364784 2.1349776 3
83.0019 11.094336 1.2110733 3
77.51413 10.292598 0.82152009 2
72.77475 9.600049 0.49284667 3
69.021393 9.0526381 0.17583773 5
65.982002 8.6101675 -0.12479538 3
62.765724 8.1406517 -0.37296844 3
59.944962 7.7294455 -0.62161797 3
57.71928 7.405324 -0.83579218 3
55.480015 7.0384536 -1.0314206 5
53.171616 6.7032213 -1.2151117 4
48.957401 6.0868649 -1.3153603 10
46.694008 5.7489839 -1.4602656 8
44.592968 5.4432673 -1.5750388 4
44.046688 5.3666515 -1.7598811 25
38.737129 4.5872593 -1.6820219 5
34.781197 4.0068641 -1.6400335 2
31.68376 3.5525556 -1.6143327 3
24.735182 2.531285 -1.4430329 16
16.16963 1.2672948 -1.291981 22
11.499748 0.58937722 -1.2989547 19
8.2716503 0.12366745 -1.328199 2
51.301289 6.4534292 9.5966606 9
106.4159 14.47022 13.586815 7
89.797874 12.018404 8.0374355 4
102.08081 13.798088 7.0792933 24
102.88169 13.904812 6.6889992 26
102.10269 13.720949 3.4633119 21
98.152153 13.127278 2.4670711 3
85.983253 11.373927 1.4538738 5
80.330276 10.500602 1.0215218 3
70.79879 9.1321058 0.33331922 2
67.403656 8.6459169 0.019512504 5
64.442886 8.2219591 -0.25566712 3
61.309006 7.772387 -0.50242138 4
58.880066 7.424499 -0.72365659 3
56.455181 7.0770073 -0.93462396 2
54.333424 6.7731981 -1.1323235 3
50.211761 6.168756 -1.2403605 4
47.709591 5.8091683 -1.3788587 17
46.329613 5.6124206 -1.5398719 8
44.043285 5.2836728 -1.6567906 13
39.805252 4.6701531 -1.6501583 7
37.199814 4.2938428 -1.6928662 2
33.123718 3.6781402 -1.6221724 3
30.3964 3.2852392 -1.6165142 4
22.785526 2.1926193 -1.5764815 20
13.437351 0.84428024 -1.2787201 18
9.5619535 0.2882804 -1.3002361 2
51.293407 6.3853755 11.183864 3
52.308788 6.4692068 8.1916332 10
88.957184 11.736512 9.5968218 9
112.59962 15.139249 8.5259752 20
112.78739 15.071309 5.9954472 4
103.8525 13.775582 4.1976547 5
101.93128 13.498005 3.2353404 3
101.79575 13.46863 2.7771025 3
77.209564 9.9123201 0.82712245 1
72.789055 9.2859058 0.48704821 3
69.0354 8.7545042 0.170461 3
65.943787 8.3173342 -0.11761746 2
62.811558 7.8738384 -0.37800905 3
60.017971 7.4784002 -0.61614162 3
57.821651 7.1680236 -0.83129781 1
55.282475 6.7982073 -1.0297248 1
51.289768 6.2019019 -1.1642392 9
48.630894 5.825716 -1.2986212 9
46.296913 5.4874721 -1.439509 13
44.699764 5.2629304 -1.5819151 4
44.026939 5.170403 -1.7532123 18
38.623837 4.4004626 -1.6781316 10
34.913013 3.8719676 -1.6425273 2
31.656546 3.4081261 -1.6082654 3
24.714626 2.4175351 -1.4379573 16
16.01845 1.1806102 -1.2749565 20
11.477577 0.52974772 -1.293799 26
8.3992052 0.10198417 -1.3505286 1
7.3344269 -0.041616805 -1.5704099 2
52.576149 6.4018602 9.8207283 3
107.32203 14.13844 13.701128 6
90.187935 11.66815 8.074338 6
112.64293 14.833678 6.7473974 19
112.65224 14.824055 6.2445397 27
101.82001 13.229345 3.0086215 60
97.814865 12.655218 2.4509108 3
91.633789 11.791232 1.9267846 3
79.680801 10.103996 1.0245351 3
74.720894 9.3702478 0.64774191 2
70.8349 8.8296614 0.32773146 5
67.297211 8.3377008 0.026962698 2
64.340668 7.9269934 -0.24791265 3
61.344566 7.5102286 -0.49623066 8
58.80608 7.157486 -0.72635674 2
56.481976 6.8343792 -0.92876345 2
52.336052 6.2444549 -1.0731597 6
49.429173 5.8386931 -1.210282 11
47.034195 5.5050268 -1.3577629 14
46.109314 5.3447371 -1.5341067 10
44.024624 5.0555663 -1.6506867 15
39.573963 4.4332776 -1.6340089 4
37.029694 4.0786805 -1.6858793 1
33.120716 3.5311322 -1.6174312 4
30.329168 3.1409435 -1.613618 3
22.851048 2.0952218 -1.5782264 12
13.43559 0.77905303 -1.2786971 32
9.6926556 0.2612091 -1.3201301 1
8.1650219 0.055272959 -1.5320725 1
51.407089 6.1392756 11.204393 3
50.216217 5.8995585 7.8834443 11
90.444847 11.494379 9.7509317 8
100.51659 12.868397 7.6422215 37
112.78174 14.573857 6.5062323 22
112.70887 14.552775 5.9989462 45
102.51208 13.056132 3.6972082 3
101.70511 12.952494 3.235821 100
76.998192 9.5340748 0.83297372 3
72.600777 8.9305305 0.49362752 3
68.936005 8.4281588 0.17749467 3
65.800835 7.962975 -0.1105845 3
62.863605 7.5620675 -0.37262008 3
60.019608 7.1735859 -0.61026871 4
57.857243 6.8790588 -0.83654636 3
55.473003 6.543169 -1.0285656 4
50.734985 5.8915768 -1.1424114 20
48.307919 5.5594707 -1.2909646 11
46.221821 5.274405 -1.4393208 8
44.858654 5.0889926 -1.5829077 3
44.018322 4.9680667 -1.7472085 21
38.496048 4.1844897 -1.6668462 13
34.693695 3.6618247 -1.6260098 3
31.671402 3.2465978 -1.6049852 3
24.742498 2.2924147 -1.4364206 12
16.028225 1.096387 -1.2763281 26
11.467302 0.47433934 -1.2924892 23
8.5679321 0.08337494 -1.3801695 2
7.3377285 -0.078944229 -1.5706617 2
49.358219 5.7156472 9.2528 6
107.41177 13.66748 13.714492 13
90.217033 11.216541 8.0793953 5
112.75002 14.269962 6.2553544 20
105.10047 13.220962 4.020184 5
101.91687 12.794123 3.4739354 3
97.449783 12.112297 2.4501541 4
74.578468 9.0134668 0.6408602 1
70.711952 8.4925671 0.33461177 3
67.349541 8.040226 0.033432841 4
64.236702 7.6213665 -0.24038827 3
61.380512 7.2370157 -0.49025086 2
58.734829 6.8490019 -0.71923918 4
56.555805 6.5572138 -0.92459619 2
51.456142 5.8582716 -1.0443926 15
49.047604 5.5347252 -1.1932126 11
46.864998 5.2418709 -1.3465267 11
45.90028 5.1143928 -1.5200748 15
44.067944 4.860467 -1.6470811 17
39.412338 4.2301998 -1.6282606 4
36.63245 3.8546607 -1.6599354 3
32.95863 3.3565366 -1.6037148 2
30.290314 2.9788013 -1.6071808 2
22.874409 1.9787948 -1.5767255 12
13.431906 0.70582819 -1.2759171 15
9.7335701 0.21279562 -1.3243003 2
8.3076487 0.028755933 -1.5586007 2
51.488876 5.9068022 11.219455 3
53.464867 6.1112733 8.3605614 2
90.169678 11.049398 9.7258291 10
112.50267 14.052548 8.5089617 10
104.30936 12.846281 4.2099271 9
102.29562 12.58439 3.6984811 5
87.917992 10.652873 1.6625206 2
82.461136 9.9277306 1.2136724 1
72.577568 8.6124811 0.50074673 3
68.783875 8.1084242 0.18483181 1
65.856514 7.6726804 -0.10432068 3
62.906696 7.2831511 -0.366584 2
59.996437 6.8986435 -0.61429393 3
57.637817 6.5872169 -0.8258605 3
52.949127 5.9628377 -0.96128589 22
50.168381 5.5939965 -1.1202818 17
48.008492 5.3080916 -1.2752937 10
46.278934 5.0714002 -1.4358904 15
44.705051 4.8637552 -1.5709596 4
44.043385 4.7785974 -1.7427173 17
38.404949 3.9960194 -1.6572627 15
34.651836 3.4968395 -1.6191255 2
31.620493 3.09394 -1.6034713 2
24.714638 2.1782095 -1.4355105 14
15.874455 1.0022765 -1.259215 19
11.498648 0.4224484 -1.2943401 27
8.8267508 0.075659737 -1.4239886 2
7.3060641 -0.1211065 -1.5630748 3
49.39732 5.4959388 9.2593298 6
52.305584 5.8347511 6.9302535 16
103.03386 12.493905 3.9569263 4
85.110474 10.064583 1.4647894 3
79.45668 9.3266544 1.036618 5
74.593216 8.6922522 0.648193 2
70.850502 8.2041817 0.34167147 3
67.263184 7.7365108 0.040722132 1
64.260674 7.3455019 -0.23384601 3
61.392838 6.9720078 -0.49481258 2
58.82642 6.594903 -0.71454513 6
54.409744 6.0184574 -0.88118553 9
51.208031 5.6013122 -1.0411439 12
48.963669 5.3096499 -1.1936839 16
46.908096 5.0341563 -1.3424838 18
45.760563 4.8868794 -1.5089872 11
44.028786 4.6625295 -1.6477627 19
39.326401 4.0457959 -1.6189888 4
36.711315 3.7038653 -1.659259 2
32.987553 3.2149334 -1.606936 2
30.353386 2.8473771 -1.6069493 2
22.890079 1.8783554 -1.5745203 24
13.445248 0.6453566 -1.275028 26
9.7095356 0.16119926 -1.3205309 1
8.31707 -0.012014321 -1.5601491 2
48.26918 5.2462773 10.553379 2
49.251389 5.3156681 7.7429085 11
90.566147 10.695155 9.7698793 13
105.0918 12.497987 4.2468867 5
102.79321 12.197472 3.2831433 18
87.565689 10.164231 1.6640227 6
72.601318 8.2487373 0.50697845 1
69.025398 7.7917542 0.19036032 5
65.758583 7.3744535 -0.10862601 2
62.960995 7.017014 -0.36050045 5
60.082893 6.6490908 -0.60910714 3
55.598232 6.0717497 -0.77905238 7
52.579422 5.6842771 -0.95582968 11
49.915073 5.3059702 -1.1077595 25
47.722137 5.026515 -1.2606537 29
46.16198 4.8203583 -1.426321 17
44.926018 4.6642351 -1.5750178 3
44.013885 4.5501232 -1.744122 10
38.324585 3.8170841 -1.6551771 11
34.463486 3.3198912 -1.6105009 3
31.59622 2.9510536 -1.5977277 3
24.733679 2.0657854 -1.4333251 12
15.830173 0.9208498 -1.2524922 24
11.558708 0.37641448 -1.3022009 29
7.3731956 -0.14970021 -1.5761999 2
50.991581 5.478158 9.5402002 9
49.959103 5.2945743 6.6425796 27
105.35042 12.317331 3.5759039 6
96.553902 11.139696 2.4475441 2
90.293633 10.334241 1.9101679 2
84.897446 9.6547623 1.454411 3
79.158112 8.9310055 1.0271511 2
74.651955 8.3634329 0.65544379 3
70.78714 7.8764205 0.34849733 2
67.354492 7.4446273 0.034930736 4
64.229256 7.0512805 -0.23854512 2
61.287571 6.6808677 -0.48700172 3
56.714695 6.0704975 -0.67101943 8
53.922333 5.719584 -0.86436921 9
50.873825 5.3263426 -1.0265843 37
48.87418 5.0757813 -1.1853207 15
46.780388 4.8132243 -1.3408265 16
45.637215 4.6713805 -1.506761 13
44.076355 4.4680338 -1.644435 24
39.225666 3.853265 -1.6091561 5
36.874622 3.5566211 -1.6631444 1
32.844685 3.0451393 -1.5944341 5
30.180458 2.7077937 -1.5919268 3
23.020227 1.7883103 -1.585788 12
13.522457 0.5905031 -1.2838672 13
9.7806559 0.12217053 -1.3293978 2
8.3642378 -0.047872167 -1.5693182 2
51.584743 5.4505901 11.237082 4
52.632435 5.5296483 8.2401485 11
93.359665 10.640567 10.060498 13
107.45337 12.331441 3.8635952 4
87.033531 9.766737 1.665 3
82.061188 9.0908241 1.2234473 18
76.666336 8.4236069 0.83799303 2
72.503349 7.9094839 0.50069433 2
68.922478 7.4677277 0.18498431 4
65.848434 7.0888042 -0.10263586 4
62.858673 6.7199345 -0.36418 3
57.785591 6.0895433 -0.56722611 7
55.456352 5.8021522 -0.77025384 19
52.230583 5.4020987 -0.94160628 14
49.878323 5.1111751 -1.1095195 21
47.801987 4.8196635 -1.2577422 17
45.968887 4.5948682 -1.4218332 20
44.708508 4.440938 -1.5685205 4
40.21991 3.8755887 -1.563696 6
38.260487 3.6339376 -1.647079 14
34.624168 3.1819935 -1.6148295 2
31.593824 2.8054645 -1.5933926 3
24.728472 1.9502807 -1.4295138 9
15.812509 0.84632093 -1.2513089 18
11.564071 0.32067075 -1.3007398 7
9.3509588 0.048780818 -1.5144743 1
48.007076 4.837153 9.0125713 6
51.466839 5.2273016 6.8288355 21
107.91254 12.103014 3.6608598 18
79.099968 8.5819025 1.0341552 3
74.551804 8.0283394 0.6622811 4
70.626625 7.4997044 0.34195793 5
67.237625 7.0900617 0.041453719 3
64.340805 6.7402506 -0.23362318 2
59.136517 6.1066737 -0.45273581 8
56.844448 5.8300223 -0.67745364 16
53.538757 5.4282069 -0.85011441 12
50.735561 5.0878539 -1.0171406 14
48.80238 4.8539753 -1.1774288 38
46.642097 4.5836692 -1.3305169 17
45.537037 4.4515753 -1.4973614 17
44.046646 4.2398171 -1.6380712 13
39.143436 3.6426914 -1.6005578 5
36.741081 3.3515451 -1.6583292 2
32.803226 2.8712339 -1.5879934 3
30.297544 2.5666819 -1.600845 3
22.977715 1.6801655 -1.5790043 16
13.529403 0.5288735 -1.2823192 12
10.091457 0.11460268 -1.3769225 2
8.3571215 -0.091006853 -1.5658762 2
51.524246 5.2088623 11.223808 2
50.177532 4.9538832 7.8794017 13
110.42091 12.149834 3.9670234 15
81.843811 8.7105265 1.2288183 2
76.462128 8.0678349 0.84403598 3
72.516457 7.5976434 0.50784558 4
69.138298 7.1956139 0.19144805 3
65.843323 6.8030849 -0.095818996 2
57.996784 5.8224201 -0.56492829 17
55.110077 5.4796667 -0.76789087 15
52.103989 5.1218801 -0.93326646 10
49.765259 4.8442531 -1.1011038 21
47.729797 4.6028361 -1.2583748 13
45.796886 4.3653102 -1.4099981 29
44.824554 4.2517028 -1.5679783 2
40.145195 3.6905549 -1.5552231 5
38.229435 3.4625068 -1.6406232 12
34.410835 2.9788096 -1.5989556 2
31.574642 2.6407552 -1.5940861 4
24.722069 1.8211443 -1.4303771 12
15.723078 0.7512536 -1.2404957 26
11.605141 0.26258388 -1.3062266 5
9.5283909 0.026046518 -1.5457138 4
50.716179 4.9449196 9.4902697 9
-0.87455606 -1.2622701 0.34997547 1
84.737572 8.8881874 1.467703 4
79.13134 8.2300749 1.0416445 3
74.356445 7.6699924 0.65515649 3
70.465256 7.1753626 0.34896249 3
67.428123 6.8217678 0.047462225 3
64.251816 6.4511905 -0.2261551 4
59.416325 5.8834462 -0.45011383 21
56.952335 5.5961761 -0.67315841 17
53.527851 5.1943278 -0.84392619 9
50.525803 4.8331332 -1.0060356 22
48.742252 4.6257215 -1.178856 19
46.533493 4.3675246 -1.3211989 9
45.499371 4.2485514 -1.4903769 13
44.049789 4.0480113 -1.632785 22
39.15469 3.4728208 -1.6032741 4
36.964714 3.2168965 -1.6653962 2
32.851311 2.7325485 -1.5864192 3
30.311661 2.4346259 -1.597648 2
23.048073 1.5816419 -1.5812905 15
13.564725 0.46809739 -1.286575 11
10.163428 0.073472261 -1.3859061 1
8.3872433 -0.12776013 -1.5716978 1
51.551327 4.9690089 11.228416 3
52.537811 5.0031953 8.2268333 9
53.480129 5.0909076 5.9554062 40
99.20726 10.352504 2.7458029 4
81.53215 8.3071127 1.2183182 5
76.706886 7.7528729 0.83901703 5
72.416496 7.2598281 0.5144825 3
65.70327 6.4901328 -0.088360697 5
60.614613 5.8698463 -0.32731116 10
58.096519 5.5827951 -0.57063997 20
54.700119 5.192915 -0.75378233 18
51.957752 4.8785286 -0.92393792 16
49.695393 4.6107211 -1.0935726 11
47.54377 4.3648081 -1.2468488 18
45.836243 4.170351 -1.406004 17
45.15028 4.0942121 -1.5760423 3
40.07412 3.4995999 -1.5543345 3
38.223866 3.2876441 -1.6425276 10
34.460365 2.8334234 -1.5972127 2
31.642597 2.5095618 -1.5939368 4
24.702372 1.7088904 -1.4256105 10
15.746833 0.67930412 -1.2402917 22
11.64915 0.2135261 -1.3098129 4
9.6075869 -0.011824038 -1.5576594 3
50.749939 4.7189031 9.4965458 5
53.482922 4.9928346 7.0806446 27
89.654526 9.0139494 1.9218451 25
78.917587 7.8078675 1.0461613 3
70.734055 6.8890381 0.35575175 2
67.286079 6.5020971 0.054680288 5
61.864841 5.8896112 -0.19909513 12
59.411243 5.6150312 -0.45457411 18
56.739578 5.314754 -0.6634562 9
53.47934 4.9180145 -0.84718001 10
50.362312 4.5586367 -1.0056986 31
48.760803 4.3805809 -1.174335 18
46.515076 4.1291242 -1.3155758 13
45.370197 4.0026627 -1.480318 7
44.040749 3.8471403 -1.6350753 20
39.09293 3.2874506 -1.595502 2
36.601234 3.0068288 -1.6416537 4
32.867409 2.5840423 -1.5891322 2
30.323856 2.2967978 -1.5944347 4
23.078503 1.4652673 -1.5848389 12
13.518004 0.38977838 -1.2792116 16
8.3172083 -0.18496856 -1.5556897 2
52.388317 4.8027444 11.399633 2
48.953472 4.3607998 7.7018843 12
92.471107 9.1642361 2.1811793 3
81.540283 7.8984432 1.2248981 2
76.682594 7.3644967 0.8451575 1
72.40377 6.8939929 0.520567 3
69.118439 6.5342193 0.19187406 2
63.52227 5.9160047 -0.079892933 5
60.704002 5.606637 -0.32212344 17
58.032505 5.32406 -0.56344569 16
54.863152 4.964108 -0.75116301 13
51.589653 4.6026449 -0.91881633 10
49.661957 4.3912492 -1.0959165 15
47.455971 4.1482139 -1.2384778 18
45.836731 3.9376867 -1.4010762 12
45.215961 3.8722119 -1.5737747 7
40.149841 3.3038566 -1.5532701 2
38.215191 3.0916641 -1.6376525 20
34.453068 2.6752436 -1.598761 2
31.563835 2.3557458 -1.5852289 3
24.735235 1.5982196 -1.4245286 8
15.748897 0.60782439 -1.2410574 26
11.68435 0.16087757 -1.3122911 7
9.6266289 -0.05721806 -1.560956 2
49.451492 4.3085465 9.2667589 4
72.722786 6.8410501 9.4534006 3
65.021919 5.9634895 0.059237123 6
62.231304 5.6625824 -0.20696032 20
59.317497 5.3476853 -0.44707346 14
56.882961 5.0849986 -0.67001987 22
53.437294 4.7104902 -0.83992243 13
50.443169 4.3488722 -1.0021597 12
48.816093 4.1748219 -1.1704371 20
46.269917 3.8917644 -1.3101031 15
45.378811 3.7981188 -1.4835643 8
44.066067 3.6581404 -1.6308465 16
39.086147 3.1159263 -1.5903401 3
36.608841 2.8475778 -1.6440858 3
32.906384 2.4439523 -1.5871124 2
30.424789 2.1744158 -1.6022193 3
23.103533 1.3780385 -1.5834219 8
13.718744 0.34970814 -1.2991735 33
8.3802814 -0.21970771 -1.5681821 1
50.025787 4.2980332 10.911434 1
48.937691 4.137392 7.7008233 11
76.195259 7.0616555 8.2945089 4
86.553223 8.1229897 1.6721792 3
81.546516 7.5921302 1.2334654 7
72.292267 6.5702691 0.51447213 2
66.781227 5.9856372 0.20364013 8
63.313343 5.6192465 -0.072055787 17
60.642838 5.3378816 -0.32599565 22
58.029114 5.0621777 -0.55739391 16
54.88105 4.728416 -0.74555659 15
51.557369 4.3754406 -0.91233218 11
49.654625 4.1659389 -1.0902383 16
47.398636 3.9274299 -1.2398158 13
45.707939 3.7164762 -1.399289 16
45.148495 3.6602967 -1.573853 9
40.034851 3.1163664 -1.5431056 5
38.22747 2.9260125 -1.633522 11
34.689995 2.5496445 -1.6072969 2
31.565138 2.2171221 -1.5812272 3
24.737385 1.4886421 -1.4213321 13
15.804707 0.53916818 -1.2439157 29
11.769091 0.11569941 -1.3234724 5
9.5391006 -0.11453935 -1.54353 2
48.005486 3.9309728 9.0125322 10
54.047958 4.540226 7.1533217 29
75.650703 6.8116961 6.8456135 6
44.424484 3.4888389 1.3287058 201
44.48135 3.4903519 1.1374854 82
84.426071 7.6861825 1.4705236 5
74.288101 6.6345787 0.67520535 2
68.281334 6.0086493 0.35646695 4
65.095428 5.6438799 0.064643368 12
62.079632 5.3331766 -0.20003068 14
59.209106 5.0372186 -0.44015923 13
56.800186 4.7892556 -0.66316223 34
53.286129 4.4245977 -0.83143824 10
50.362118 4.1215978 -0.99442905 30
48.684563 3.9403338 -1.1610566 21
46.388802 3.7032137 -1.3088793 13
45.304527 3.5930307 -1.4753027 12
44.062603 3.4580922 -1.6255146 19
39.054394 2.9137416 -1.5914834 7
44.331085 3.4698832 -2.0456271 3
32.883709 2.2731376 -1.5819407 3
30.237047 1.9985474 -1.5869792 2
23.112505 1.259015 -1.5810641 8
13.894673 0.30274889 -1.3190647 6
11.200077 0.030678108 -1.5423602 3
8.4094391 -0.25867262 -1.5721654 1
53.056465 4.3444929 8.3070326 52
62.14468 5.2221227 4.9045563 13
98.674332 8.9322748 2.7395275 4
44.49622 3.3772018 1.2396106 201
81.489449 7.1773977 1.2393427 3
76.629425 6.6852589 0.85921866 1
72.322914 6.2491908 0.52135968 8
66.280197 5.6342506 0.21107437 9
63.279293 5.3311572 -0.065597922 19
60.566715 5.0681338 -0.31887949 16
58.166992 4.7837362 -0.55404526 17
54.991268 4.4628968 -0.75227463 14
51.310093 4.0894814 -0.90138018 10
49.66394 3.9157317 -1.0854905 16
47.430687 3.6907103 -1.2359594 16
45.759518 3.52321 -1.3958799 12
45.046783 3.4536495 -1.5643039 15
40.124111 2.9438784 -1.5497066 4
38.209934 2.7503967 -1.6280323 16
34.522858 2.3742487 -1.5939475 1
31.656216 2.064836 -1.5886077 3
24.75548 1.3626022 -1.424039 8
15.903739 0.46554869 -1.2509156 24
12.05418 0.081518799 -1.3582302 10
9.6043234 -0.16050532 -1.5550503 2
50.209278 3.9382987 9.4018574 8
74.071754 6.3128786 6.7162218 3
65.378319 5.4340854 4.7003121 6
65.581848 5.4128709 4.4304218 6
63.564476 5.2078004 2.5994685 4
63.652359 5.221746 2.3294313 16
44.434906 3.2887282 1.3327657 201
44.501167 3.266793 1.141266 69
79.193863 6.7466059 1.0555787 2
73.778725 6.2109957 0.66595829 33
68.350052 5.6724172 0.36230743 13
64.986809 5.3406744 0.071428552 14
61.945843 5.0407419 -0.19271836 10
59.39024 4.7999611 -0.44692296 10
56.921776 4.5560193 -0.6592052 12
53.027973 4.1585884 -0.82976186 6
50.432888 3.9015989 -0.99988222 16
48.783508 3.7393723 -1.1673139 23
46.37851 3.4924183 -1.3033164 12
45.263622 3.3840864 -1.47668 14
44.052143 3.2656701 -1.6277598 11
39.072567 2.7381887 -1.5877125 5
36.657837 2.4991641 -1.637988 5
32.810383 2.1157274 -1.5797131 1
30.320826 1.8684858 -1.5883031 4
23.092516 1.1500196 -1.5806066 15
13.9103 0.24058644 -1.3185847 5
11.220676 -0.021726307 -1.5434489 2
8.409647 -0.29914731 -1.5721343 1
51.390461 3.9826214 11.193453 2
53.61451 4.1606917 8.3906431 21
63.00103 5.0354981 6.9438715 10
65.535248 5.288178 4.5538034 9
65.693558 5.3030372 3.9753842 2
65.872314 5.3143873 3.6901758 5
64.235771 5.1635427 3.0454669 9
63.625916 5.0972118 2.7355926 15
63.714382 5.1110625 2.4655089 13
63.871876 5.085906 2.1957369 6
44.443867 3.1751449 1.4346412 201
44.458603 3.1801889 1.2429212 201
81.361076 6.8151116 1.2311053 2
76.250206 6.318851 0.85042524 2
69.676842 5.6777992 0.50938106 15
66.763412 5.3965492 0.2048451 14
63.319393 5.0624938 -0.070737004 24
60.614735 4.800849 -0.32415032 16
58.196838 4.5357103 -0.5587759 24
55.019989 4.2280135 -0.74692661 14
51.366817 3.8638599 -0.90647441 14
49.640438 3.6984441 -1.0882154 18
47.231483 3.4654198 -1.2241204 11
45.74316 3.3148763 -1.3983474 9
45.039066 3.2493076 -1.566928 11
40.086021 2.7653768 -1.5431548 3
38.223396 2.5852056 -1.6309716 15
34.608322 2.2317545 -1.6005843 2
31.645914 1.9191543 -1.5840727 2
27.19175 1.4875578 -1.5867956 9
15.965627 0.39649048 -1.257408 16
12.361937 0.054029968 -1.3982315 3
9.6730509 -0.20102049 -1.5652676 1
48.211918 3.5169835 9.0417881 7
54.799171 4.1257763 7.2405343 9
72.846039 5.8624592 6.6166925 9
65.512695 5.1538305 4.7017508 10
74.315544 5.9582114 4.9568262 2
65.667778 5.132751 4.1228099 11
65.831131 5.1539855 3.8375902 7
65.672272 5.1324191 3.5354092 2
64.005814 4.977273 3.1811197 5
63.776405 4.9490919 2.8858001 9
63.842644 4.9605956 2.6145267 9
63.032536 4.8878994 2.3046026 6
44.508366 3.1028078 1.3383744 201
78.751091 6.3643727 1.045102 2
71.669357 5.6914768 0.6638484 8
68.15168 5.3594389 0.35681185 14
64.869667 5.0497108 0.066843748 15
62.025539 4.7815633 -0.19813412 13
59.35862 4.5300093 -0.4405047 19
56.863071 4.2945299 -0.66250288 18
52.702164 3.8978624 -0.81699765 12
50.326447 3.6367342 -0.99214697 19
48.683285 3.4832385 -1.1593745 11
46.358608 3.2643931 -1.3060632 16
45.307983 3.1592026 -1.4736452 5
44.009422 3.0384145 -1.6211568 23
38.972622 2.5585051 -1.5852762 3
36.533081 2.3272955 -1.6336001 2
32.888168 1.9794883 -1.5800171 4
30.250195 1.7285979 -1.5856453 2
23.069 1.0451397 -1.5755818 3
13.934531 0.17657883 -1.3217827 7
11.258065 -0.079127394 -1.549384 2
8.3859253 -0.34870484 -1.5673432 1
51.414711 3.7159026 11.197484 3
54.239223 3.9494209 8.4733524 17
63.131596 4.7651 6.9492025 15
65.176178 4.9610219 5.1198659 18
75.634308 5.9466438 5.1962328 4
65.681183 5.0136499 4.2617912 12
65.926804 5.030551 3.9810135 7
65.553085 5.0005836 3.6793723 12
63.847931 4.8335457 3.3083866 6
63.85825 4.8396568 3.0348368 11
62.971413 4.7612424 2.7167006 8
63.174713 4.7744098 2.4417179 25
62.855 4.7492967 2.1617553 7
44.524811 2.9897947 1.4405599 201
44.501911 2.9914012 1.2398257 201
73.782722 5.7458801 0.84111667 13
69.873848 5.384182 0.51641113 14
66.849747 5.1053715 0.21108548 19
78.795525 6.2504444 -0.16255796 5
60.692577 4.5468721 -0.31873488 16
58.143089 4.3110986 -0.56171346 22
55.123096 3.99036 -0.75307631 15
51.048695 3.6117811 -0.89333951 14
49.572487 3.477181 -1.0808079 14
47.234756 3.2526896 -1.2275298 10
45.726418 3.1149266 -1.3924791 12
44.921616 3.0428526 -1.5568316 8
40.025616 2.578124 -1.5429733 4
38.234818 2.4129114 -1.6339442 16
34.574497 2.0711117 -1.6008588 2
31.67424 1.8005254 -1.5873213 1
27.091753 1.3583615 -1.5814378 6
15.960545 0.32363999 -1.25764 5
9.6803303 -0.24609631 -1.5666366 3
50.958092 3.5548255 9.526679 7
74.868088 5.735106 9.7166643 7
72.815346 5.5467257 6.6057558 6
75.663956 5.8108568 5.3705196 12
65.550995 4.8688345 4.4270315 18
65.82972 4.8533831 4.1249127 5
65.594391 4.8372836 3.8183439 10
63.828346 4.6801577 3.4524648 7
63.955723 4.6855588 3.1838708 6
63.13311 4.6152854 2.8658652 6
62.893208 4.5872245 2.5752149 3
63.070694 4.6086016 2.3109682 10
44.51725 2.9025853 1.3344204 201
44.475842 2.9023826 1.141506 79
76.199608 5.7790446 1.0296983 5
71.706146 5.3743067 0.65791643 17
68.277664 5.0657001 0.36331531 5
64.883698 4.7720132 0.06170629 13
62.091225 4.5206375 -0.20345312 11
59.377449 4.2760463 -0.44519514 12
56.501579 4.0160756 -0.6603623 14
51.734627 3.5717711 -0.79998779 16
50.308243 3.4447341 -0.99475431 24
48.632862 3.2592974 -1.1613171 18
46.32019 3.0517786 -1.3079436 9
45.20768 2.9537189 -1.4726559 17
44.040951 2.8505042 -1.6253139 20
38.891766 2.3743758 -1.5768485 4
36.471794 2.155822 -1.6326623 2
32.811504 1.8226357 -1.5776844 3
30.350744 1.599528 -1.5880747 2
23.223759 0.95280528 -1.5890584 7
13.997385 0.115962 -1.3265903 7
11.266055 -0.13301803 -1.5508507 2
50.816425 3.4206848 11.064852 3
54.403763 3.7201025 8.4994955 7
65.312706 4.6810832 5.1340055 9
65.515602 4.6988268 4.5498772 17
74.81633 5.5413589 4.802392 14
64.135414 4.5855031 3.8888888 4
63.771751 4.5466714 3.5837111 15
64.124649 4.5376406 3.3251278 3
63.142307 4.4551563 2.9981196 11
62.149059 4.3713231 2.6905327 8
44.281113 2.7705727 1.2393861 201
